ply
format ascii 1.0
comment Generated by PDAL
element vertex 862
property double x
property double y
property double z
property double nx
property double ny
property double nz
property double curvature
element face 0
property list uchar uint vertex_indices
end_header
37596184.00 566669312.00 27578.00 0.00 -1.00 -0.00 0.00
37596156.00 566669248.00 27582.00 0.00 -1.00 -0.00 0.00
37596128.00 566669248.00 27583.00 0.00 -1.00 -0.00 0.00
37596096.00 566669248.00 27589.00 0.00 -1.00 -0.00 0.00
37596072.00 566669248.00 27601.00 0.00 -1.00 -0.00 0.00
37596044.00 566669248.00 27609.00 0.00 -1.00 -0.00 0.00
37596016.00 566669248.00 27622.00 0.00 -1.00 -0.00 0.00
37596608.00 566669312.00 27536.00 0.17 0.05 0.98 0.00
37596580.00 566669312.00 27537.00 0.00 -1.00 -0.00 0.00
37596552.00 566669312.00 27538.00 0.00 -1.00 -0.00 0.00
37596636.00 566669312.00 27525.00 0.22 0.04 0.97 0.00
37596604.00 566669312.00 27535.00 0.16 -0.01 0.99 0.00
37596576.00 566669312.00 27541.00 0.00 -1.00 -0.00 0.00
37596548.00 566669312.00 27545.00 0.00 -1.00 -0.00 0.00
37596520.00 566669312.00 27545.00 0.00 -1.00 -0.00 0.00
37596492.00 566669312.00 27545.00 0.00 -1.00 -0.00 0.00
37596464.00 566669248.00 27553.00 0.00 -1.00 -0.00 0.00
37596436.00 566669248.00 27554.00 0.00 -1.00 -0.00 0.00
37596408.00 566669248.00 27556.00 0.00 -1.00 -0.00 0.00
37596376.00 566669248.00 27558.00 0.00 -1.00 -0.00 0.00
37596348.00 566669248.00 27561.00 0.00 -1.00 -0.00 0.00
37596320.00 566669248.00 27564.00 0.00 -1.00 -0.00 0.00
37596296.00 566669248.00 27564.00 0.00 -1.00 -0.00 0.00
37596264.00 566669248.00 27569.00 0.00 -1.00 -0.00 0.00
37596240.00 566669248.00 27573.00 0.00 -1.00 -0.00 0.00
37596208.00 566669248.00 27572.00 0.00 -1.00 -0.00 0.00
37596180.00 566669248.00 27576.00 0.00 -1.00 -0.00 0.00
37596152.00 566669248.00 27582.00 0.00 -1.00 -0.00 0.00
37596124.00 566669248.00 27587.00 0.00 -1.00 -0.00 0.00
37596096.00 566669248.00 27592.00 0.00 -1.00 -0.00 0.00
37596064.00 566669248.00 27602.00 0.00 -1.00 -0.00 0.00
37596036.00 566669248.00 27612.00 0.00 -1.00 -0.00 0.00
37596008.00 566669248.00 27627.00 0.00 -1.00 -0.00 0.00
37596616.00 566669248.00 27535.00 0.04 0.02 1.00 0.00
37596592.00 566669248.00 27540.00 0.08 0.01 1.00 0.00
37596560.00 566669248.00 27539.00 0.00 -1.00 -0.00 0.00
37596532.00 566669248.00 27544.00 0.00 -1.00 -0.00 0.00
37596508.00 566669248.00 27545.00 0.00 -1.00 -0.00 0.00
37596480.00 566669248.00 27547.00 0.00 -1.00 -0.00 0.00
37596448.00 566669248.00 27551.00 0.00 -1.00 -0.00 0.00
37596424.00 566669248.00 27557.00 0.00 -1.00 -0.00 0.00
37596392.00 566669248.00 27554.00 0.00 -1.00 -0.00 0.00
37596364.00 566669248.00 27561.00 0.00 -1.00 -0.00 0.00
37596336.00 566669248.00 27563.00 0.00 -1.00 -0.00 0.00
37596308.00 566669248.00 27566.00 0.00 -1.00 -0.00 0.00
37596280.00 566669248.00 27568.00 0.00 -1.00 -0.00 0.00
37596252.00 566669248.00 27572.00 0.00 -1.00 -0.00 0.00
37596220.00 566669248.00 27572.00 0.00 -1.00 -0.00 0.00
37596192.00 566669248.00 27570.00 0.00 -1.00 -0.00 0.00
37596168.00 566669248.00 27577.00 0.00 -1.00 -0.00 0.00
37596136.00 566669248.00 27581.00 0.00 -1.00 -0.00 0.00
37596112.00 566669248.00 27585.00 0.00 -1.00 -0.00 0.00
37596080.00 566669184.00 27595.00 0.00 -1.00 -0.00 0.00
37596052.00 566669184.00 27608.00 0.00 -1.00 -0.00 0.00
37596024.00 566669184.00 27620.00 0.41 0.00 0.91 0.00
37596076.00 566669376.00 27599.00 0.00 -1.00 -0.00 0.00
37596048.00 566669376.00 27606.00 0.00 -1.00 -0.00 0.00
37596016.00 566669376.00 27622.00 0.00 -1.00 -0.00 0.00
37596612.00 566669440.00 27530.00 0.19 -0.05 0.98 0.01
37596580.00 566669440.00 27538.00 0.00 -1.00 -0.00 0.00
37596556.00 566669440.00 27543.00 0.00 -1.00 -0.00 0.00
37596524.00 566669376.00 27547.00 0.08 -0.04 1.00 0.00
37596624.00 566669376.00 27526.00 0.24 -0.01 0.97 0.00
37596596.00 566669376.00 27539.00 0.17 -0.03 0.98 0.01
37596568.00 566669376.00 27541.00 0.00 -1.00 -0.00 0.00
37596536.00 566669376.00 27543.00 0.00 -1.00 -0.00 0.00
37596508.00 566669376.00 27548.00 0.00 -1.00 -0.00 0.00
37596480.00 566669376.00 27547.00 0.00 -1.00 -0.00 0.00
37596452.00 566669376.00 27554.00 0.00 -1.00 -0.00 0.00
37596424.00 566669376.00 27557.00 0.00 -1.00 -0.00 0.00
37596396.00 566669376.00 27558.00 0.00 -1.00 -0.00 0.00
37596368.00 566669376.00 27560.00 0.00 -1.00 -0.00 0.00
37596344.00 566669376.00 27562.00 0.00 -1.00 -0.00 0.00
37596312.00 566669376.00 27561.00 0.00 -1.00 -0.00 0.00
37596288.00 566669376.00 27564.00 0.00 -1.00 -0.00 0.00
37596260.00 566669376.00 27566.00 0.00 -1.00 -0.00 0.00
37596228.00 566669376.00 27568.00 0.00 -1.00 -0.00 0.00
37596200.00 566669376.00 27577.00 0.00 -1.00 -0.00 0.00
37596176.00 566669312.00 27578.00 0.00 -1.00 -0.00 0.00
37596144.00 566669312.00 27578.00 0.00 -1.00 -0.00 0.00
37596120.00 566669312.00 27582.00 0.00 -1.00 -0.00 0.00
37596088.00 566669312.00 27593.00 0.00 -1.00 -0.00 0.00
37596060.00 566669312.00 27603.00 0.00 -1.00 -0.00 0.00
37596032.00 566669312.00 27614.00 0.00 -1.00 -0.00 0.00
37596004.00 566669312.00 27627.00 0.00 -1.00 -0.00 0.00
37596620.00 566669376.00 27529.00 0.23 0.01 0.97 0.00
37596592.00 566669376.00 27542.00 0.18 -0.08 0.98 0.01
37596564.00 566669376.00 27541.00 0.00 -1.00 -0.00 0.00
37596536.00 566669312.00 27543.00 0.00 -1.00 -0.00 0.00
37596512.00 566669312.00 27545.00 0.00 -1.00 -0.00 0.00
37596480.00 566669312.00 27550.00 0.00 -1.00 -0.00 0.00
37596452.00 566669312.00 27552.00 0.00 -1.00 -0.00 0.00
37596424.00 566669312.00 27554.00 0.00 -1.00 -0.00 0.00
37596392.00 566669312.00 27556.00 0.00 -1.00 -0.00 0.00
37596368.00 566669312.00 27558.00 0.00 -1.00 -0.00 0.00
37596336.00 566669312.00 27562.00 0.00 -1.00 -0.00 0.00
37596308.00 566669312.00 27565.00 0.00 -1.00 -0.00 0.00
37596280.00 566669312.00 27567.00 0.00 -1.00 -0.00 0.00
37596256.00 566669312.00 27567.00 0.00 -1.00 -0.00 0.00
37596224.00 566669312.00 27569.00 0.00 -1.00 -0.00 0.00
37596200.00 566669312.00 27575.00 0.00 -1.00 -0.00 0.00
37596172.00 566669312.00 27577.00 0.00 -1.00 -0.00 0.00
37596144.00 566669312.00 27577.00 0.00 -1.00 -0.00 0.00
37596116.00 566669312.00 27579.00 0.00 -1.00 -0.00 0.00
37596088.00 566669312.00 27594.00 0.00 -1.00 -0.00 0.00
37596060.00 566669312.00 27605.00 0.38 -0.00 0.92 0.00
37596032.00 566669312.00 27617.00 0.00 -1.00 -0.00 0.00
37596000.00 566669312.00 27630.00 0.28 -0.00 0.96 0.06
37596520.00 566669312.00 27545.00 0.00 -1.00 -0.00 0.00
37596492.00 566669312.00 27545.00 0.00 -1.00 -0.00 0.00
37596464.00 566669312.00 27551.00 0.00 -1.00 -0.00 0.00
37596436.00 566669312.00 27556.00 0.00 -1.00 -0.00 0.00
37596412.00 566669312.00 27555.00 0.00 -1.00 -0.00 0.00
37596384.00 566669312.00 27554.00 0.00 -1.00 -0.00 0.00
37596352.00 566669312.00 27561.00 0.00 -1.00 -0.00 0.00
37596324.00 566669312.00 27562.00 0.00 -1.00 -0.00 0.00
37596296.00 566669312.00 27564.00 0.00 -1.00 -0.00 0.00
37596036.00 566669440.00 27613.00 0.00 -1.00 -0.00 0.00
37596008.00 566669440.00 27623.00 0.00 -1.00 -0.00 0.00
37596448.00 566669440.00 27555.00 0.06 0.02 1.00 0.00
37596412.00 566669440.00 27668.00 -0.00 -0.16 0.99 0.00
37596384.00 566669440.00 27669.00 -0.00 -0.16 0.99 0.00
37596352.00 566669440.00 27668.00 -0.02 -0.16 0.99 0.00
37596328.00 566669440.00 27578.00 0.08 -0.03 1.00 0.01
37596300.00 566669440.00 27565.00 0.00 -1.00 -0.00 0.00
37596276.00 566669440.00 27565.00 0.00 1.00 -0.00 0.00
37596248.00 566669440.00 27569.00 0.00 1.00 -0.00 0.00
37596220.00 566669440.00 27573.00 0.00 -1.00 -0.00 0.00
37596192.00 566669440.00 27577.00 0.00 -1.00 -0.00 0.00
37596160.00 566669440.00 27582.00 0.00 -1.00 -0.00 0.00
37596136.00 566669440.00 27586.00 0.00 -1.00 -0.00 0.00
37596104.00 566669440.00 27590.00 0.00 -1.00 -0.00 0.00
37596076.00 566669440.00 27595.00 0.00 -1.00 -0.00 0.00
37596048.00 566669440.00 27610.00 0.00 -1.00 -0.00 0.00
37596020.00 566669440.00 27619.00 0.00 -1.00 -0.00 0.00
37596616.00 566669504.00 27538.00 0.19 -0.08 0.98 0.01
37596588.00 566669440.00 27542.00 0.00 -1.00 -0.00 0.00
37596560.00 566669440.00 27545.00 0.00 -1.00 -0.00 0.00
37596528.00 566669440.00 27547.00 0.00 -1.00 -0.00 0.00
37596504.00 566669440.00 27550.00 0.00 -1.00 -0.00 0.00
37596472.00 566669440.00 27554.00 0.00 -1.00 -0.00 0.00
37596612.00 566669440.00 27535.00 0.19 -0.08 0.98 0.01
37596584.00 566669440.00 27543.00 0.00 -1.00 -0.00 0.00
37596560.00 566669440.00 27543.00 0.00 -1.00 -0.00 0.00
37596528.00 566669440.00 27545.00 0.00 -1.00 -0.00 0.00
37596504.00 566669440.00 27548.00 0.00 -1.00 -0.00 0.00
37596472.00 566669440.00 27549.00 0.00 -1.00 -0.00 0.00
37596444.00 566669440.00 27552.00 0.06 -0.02 1.00 0.00
37596420.00 566669440.00 27554.00 0.09 -0.02 1.00 0.00
37596388.00 566669440.00 27556.00 0.15 -0.01 0.99 0.01
37596360.00 566669440.00 27564.00 0.12 -0.06 0.99 0.01
37596332.00 566669440.00 27562.00 0.08 -0.03 1.00 0.01
37596304.00 566669440.00 27566.00 0.00 -1.00 -0.00 0.00
37596276.00 566669440.00 27570.00 0.00 1.00 -0.00 0.00
37596248.00 566669440.00 27572.00 0.00 -1.00 -0.00 0.00
37596216.00 566669376.00 27570.00 0.00 -1.00 -0.00 0.00
37596188.00 566669376.00 27577.00 0.00 -1.00 -0.00 0.00
37596160.00 566669376.00 27580.00 0.00 -1.00 -0.00 0.00
37596132.00 566669376.00 27578.00 0.00 -1.00 -0.00 0.00
37596104.00 566669376.00 27585.00 0.00 -1.00 -0.00 0.00
37596080.00 566669376.00 27595.00 0.00 -1.00 -0.00 0.00
37596048.00 566669376.00 27607.00 0.00 -1.00 -0.00 0.00
37596020.00 566669376.00 27606.00 0.00 -1.00 -0.00 0.00
37596496.00 566669376.00 27545.00 0.09 -0.05 0.99 0.00
37596472.00 566669376.00 27550.00 0.00 -1.00 -0.00 0.00
37596440.00 566669376.00 27552.00 0.00 -1.00 -0.00 0.00
37596416.00 566669376.00 27554.00 0.00 -1.00 -0.00 0.00
37596388.00 566669376.00 27560.00 0.00 -1.00 -0.00 0.00
37596360.00 566669376.00 27556.00 0.00 -1.00 -0.00 0.00
37596332.00 566669376.00 27563.00 0.00 -1.00 -0.00 0.00
37596304.00 566669376.00 27567.00 0.00 -1.00 -0.00 0.00
37596276.00 566669376.00 27568.00 0.00 -1.00 -0.00 0.00
37596248.00 566669376.00 27569.00 0.00 -1.00 -0.00 0.00
37596216.00 566669376.00 27575.00 0.00 -1.00 -0.00 0.00
37596192.00 566669376.00 27577.00 0.00 -1.00 -0.00 0.00
37596164.00 566669376.00 27575.00 0.00 -1.00 -0.00 0.00
37596136.00 566669376.00 27579.00 0.00 -1.00 -0.00 0.00
37596104.00 566669376.00 27583.00 0.00 -1.00 -0.00 0.00
37596620.00 566669568.00 27366.00 0.35 0.00 0.94 0.00
37596592.00 566669568.00 27380.00 0.00 -1.00 -0.00 0.00
37596564.00 566669568.00 27391.00 0.00 -1.00 -0.00 0.00
37596536.00 566669568.00 27402.00 0.00 -1.00 -0.00 0.00
37596504.00 566669568.00 27416.00 0.37 0.03 0.93 0.00
37596476.00 566669568.00 27427.00 0.38 -0.02 0.93 0.00
37596444.00 566669568.00 27438.00 0.00 -1.00 -0.00 0.00
37596416.00 566669568.00 27456.00 0.00 -1.00 -0.00 0.00
37596388.00 566669568.00 27464.00 0.00 -1.00 -0.00 0.00
37596360.00 566669568.00 27477.00 0.00 -1.00 -0.00 0.00
37596332.00 566669568.00 27491.00 0.00 -1.00 -0.00 0.00
37596304.00 566669568.00 27495.00 0.00 -1.00 -0.00 0.00
37596276.00 566669504.00 27512.00 0.00 -1.00 -0.00 0.00
37596248.00 566669504.00 27520.00 0.00 -1.00 -0.00 0.00
37596220.00 566669504.00 27534.00 0.00 -1.00 -0.00 0.00
37596192.00 566669504.00 27545.00 0.00 -1.00 -0.00 0.00
37596164.00 566669504.00 27559.00 0.00 -1.00 -0.00 0.00
37596136.00 566669504.00 27570.00 0.00 -1.00 -0.00 0.00
37596104.00 566669504.00 27581.00 0.00 -1.00 -0.00 0.00
37596080.00 566669504.00 27594.00 0.00 -1.00 -0.00 0.00
37596048.00 566669504.00 27607.00 0.00 -1.00 -0.00 0.00
37596020.00 566669504.00 27618.00 0.00 -1.00 -0.00 0.00
37596628.00 566669568.00 27366.00 0.36 0.02 0.93 0.00
37596600.00 566669568.00 27378.00 0.00 -1.00 -0.00 0.00
37596568.00 566669568.00 27385.00 0.00 -1.00 -0.00 0.00
37596544.00 566669504.00 27401.00 0.40 0.01 0.91 0.00
37596512.00 566669504.00 27412.00 0.39 0.01 0.92 0.00
37596488.00 566669504.00 27426.00 0.39 0.02 0.92 0.00
37596456.00 566669504.00 27435.00 0.39 0.03 0.92 0.00
37596420.00 566669504.00 27556.00 0.08 -0.00 1.00 0.00
37596384.00 566669504.00 27677.00 -0.02 -0.16 0.99 0.00
37596360.00 566669504.00 27679.00 -0.03 -0.15 0.99 0.00
37596328.00 566669504.00 27676.00 -0.03 -0.15 0.99 0.00
37596312.00 566669504.00 27501.00 0.22 0.14 0.96 0.00
37596284.00 566669504.00 27507.00 0.00 -1.00 -0.00 0.00
37596252.00 566669504.00 27517.00 0.00 -1.00 -0.00 0.00
37596224.00 566669504.00 27529.00 0.00 -1.00 -0.00 0.00
37596196.00 566669504.00 27545.00 0.00 -1.00 -0.00 0.00
37596168.00 566669504.00 27557.00 0.00 -1.00 -0.00 0.00
37596140.00 566669504.00 27567.00 0.00 -1.00 -0.00 0.00
37596112.00 566669504.00 27582.00 0.00 -1.00 -0.00 0.00
37596084.00 566669504.00 27593.00 0.00 -1.00 -0.00 0.00
37596056.00 566669504.00 27602.00 0.00 -1.00 -0.00 0.00
37596028.00 566669504.00 27614.00 0.00 -1.00 -0.00 0.00
37596000.00 566669440.00 27625.00 0.00 -1.00 -0.00 0.00
37596612.00 566669504.00 27372.00 0.39 -0.02 0.92 0.00
37596584.00 566669504.00 27382.00 0.36 0.01 0.93 0.00
37596552.00 566669504.00 27395.00 0.38 0.00 0.93 0.00
37596524.00 566669504.00 27406.00 0.40 0.01 0.91 0.00
37596496.00 566669504.00 27420.00 0.39 0.02 0.92 0.00
37596464.00 566669504.00 27434.00 0.39 0.03 0.92 0.00
37596424.00 566669504.00 27680.00 -0.02 -0.16 0.99 0.00
37596396.00 566669504.00 27680.00 -0.02 -0.16 0.99 0.00
37596368.00 566669504.00 27678.00 -0.03 -0.15 0.99 0.00
37596344.00 566669504.00 27680.00 -0.03 -0.15 0.99 0.00
37596324.00 566669504.00 27505.00 0.22 0.14 0.97 0.00
37596292.00 566669504.00 27505.00 0.24 0.13 0.96 0.01
37596264.00 566669504.00 27519.00 0.00 -1.00 -0.00 0.00
37596236.00 566669440.00 27542.00 0.00 -1.00 -0.00 0.00
37596208.00 566669440.00 27555.00 0.00 -1.00 -0.00 0.00
37596176.00 566669440.00 27570.00 0.19 -0.02 0.98 0.02
37596152.00 566669440.00 27577.00 0.00 -1.00 -0.00 0.00
37596120.00 566669440.00 27581.00 0.00 -1.00 -0.00 0.00
37596092.00 566669440.00 27592.00 0.00 -1.00 -0.00 0.00
37596064.00 566669440.00 27599.00 0.00 -1.00 -0.00 0.00
37596000.00 566669568.00 27625.00 0.30 0.08 0.95 0.06
37596604.00 566669632.00 27373.00 0.36 0.05 0.93 0.00
37596576.00 566669632.00 27384.00 0.00 -1.00 -0.00 0.00
37596548.00 566669632.00 27395.00 0.00 -1.00 -0.00 0.00
37596520.00 566669632.00 27407.00 0.40 0.03 0.92 0.00
37596492.00 566669632.00 27417.00 0.45 0.01 0.89 0.00
37596464.00 566669632.00 27439.00 0.45 -0.01 0.89 0.00
37596440.00 566669632.00 27283.00 0.00 1.00 -0.00 0.00
37596416.00 566669632.00 27281.00 0.00 1.00 -0.00 0.00
37596612.00 566669632.00 27372.00 0.37 0.05 0.93 0.00
37596584.00 566669632.00 27381.00 0.35 -0.02 0.94 0.00
37596556.00 566669632.00 27390.00 0.00 -1.00 -0.00 0.00
37596528.00 566669632.00 27401.00 0.00 -1.00 -0.00 0.00
37596500.00 566669632.00 27415.00 0.45 0.02 0.89 0.00
37596472.00 566669632.00 27430.00 0.47 -0.03 0.88 0.00
37596452.00 566669632.00 27280.00 0.00 1.00 -0.00 0.00
37596424.00 566669632.00 27280.00 0.00 1.00 -0.00 0.00
37596396.00 566669632.00 27280.00 0.00 1.00 -0.00 0.00
37596356.00 566669632.00 27482.00 0.39 0.02 0.92 0.00
37596328.00 566669632.00 27490.00 0.37 0.01 0.93 0.01
37596300.00 566669568.00 27500.00 0.00 -1.00 -0.00 0.00
37596272.00 566669568.00 27512.00 0.00 -1.00 -0.00 0.00
37596244.00 566669568.00 27524.00 0.00 -1.00 -0.00 0.00
37596212.00 566669568.00 27536.00 0.40 -0.00 0.92 0.00
37596184.00 566669568.00 27545.00 0.41 -0.02 0.91 0.00
37596156.00 566669568.00 27563.00 0.37 0.02 0.93 0.00
37596124.00 566669568.00 27572.00 0.38 0.05 0.93 0.00
37596096.00 566669568.00 27587.00 0.37 0.02 0.93 0.00
37596072.00 566669568.00 27597.00 0.39 0.03 0.92 0.00
37596040.00 566669568.00 27608.00 0.00 -1.00 -0.00 0.00
37596012.00 566669568.00 27620.00 0.24 -0.05 0.97 0.05
37596632.00 566669632.00 27361.00 0.38 0.04 0.92 0.00
37596604.00 566669568.00 27377.00 0.00 -1.00 -0.00 0.00
37596576.00 566669568.00 27386.00 0.00 -1.00 -0.00 0.00
37596548.00 566669568.00 27397.00 0.00 -1.00 -0.00 0.00
37596520.00 566669568.00 27409.00 0.00 -1.00 -0.00 0.00
37596488.00 566669568.00 27422.00 0.38 0.06 0.92 0.00
37596460.00 566669568.00 27433.00 0.40 0.03 0.92 0.00
37596436.00 566669568.00 27445.00 0.00 -1.00 -0.00 0.00
37596408.00 566669568.00 27456.00 0.00 -1.00 -0.00 0.00
37596376.00 566669568.00 27466.00 0.00 -1.00 -0.00 0.00
37596352.00 566669568.00 27480.00 0.00 -1.00 -0.00 0.00
37596320.00 566669568.00 27493.00 0.00 -1.00 -0.00 0.00
37596292.00 566669568.00 27500.00 0.00 -1.00 -0.00 0.00
37596264.00 566669568.00 27515.00 0.00 -1.00 -0.00 0.00
37596236.00 566669568.00 27527.00 0.39 0.00 0.92 0.00
37596208.00 566669568.00 27543.00 0.00 -1.00 -0.00 0.00
37596176.00 566669568.00 27554.00 0.37 0.01 0.93 0.00
37596152.00 566669568.00 27566.00 0.00 -1.00 -0.00 0.00
37596120.00 566669568.00 27574.00 0.38 0.05 0.93 0.00
37596096.00 566669568.00 27588.00 0.37 0.02 0.93 0.00
37596064.00 566669504.00 27600.00 0.00 -1.00 -0.00 0.00
37596036.00 566669504.00 27615.00 0.00 -1.00 -0.00 0.00
37596004.00 566669504.00 27625.00 0.00 -1.00 -0.00 0.00
37596612.00 566669696.00 27364.00 0.37 0.01 0.93 0.00
37596584.00 566669696.00 27382.00 0.36 0.04 0.93 0.00
37596552.00 566669696.00 27395.00 0.37 0.02 0.93 0.00
37596524.00 566669696.00 27399.00 0.39 -0.02 0.92 0.00
37596496.00 566669696.00 27417.00 0.00 -1.00 -0.00 0.00
37596468.00 566669696.00 27433.00 0.41 0.02 0.91 0.00
37596440.00 566669696.00 27440.00 0.40 0.05 0.92 0.00
37596412.00 566669696.00 27455.00 0.00 -1.00 -0.00 0.00
37596380.00 566669696.00 27465.00 0.00 -1.00 -0.00 0.00
37596352.00 566669696.00 27478.00 0.37 0.09 0.93 0.00
37596324.00 566669696.00 27490.00 0.00 -1.00 -0.00 0.00
37596292.00 566669696.00 27502.00 0.40 -0.04 0.92 0.00
37596264.00 566669696.00 27515.00 0.40 -0.02 0.92 0.00
37596240.00 566669696.00 27525.00 0.38 -0.00 0.92 0.00
37596208.00 566669696.00 27537.00 0.00 -1.00 -0.00 0.00
37596180.00 566669696.00 27550.00 0.40 -0.00 0.92 0.00
37596152.00 566669696.00 27562.00 0.38 0.04 0.92 0.00
37596120.00 566669632.00 27573.00 0.00 -1.00 -0.00 0.00
37596096.00 566669632.00 27585.00 0.00 -1.00 -0.00 0.00
37596068.00 566669632.00 27595.00 0.00 -1.00 -0.00 0.00
37596624.00 566669696.00 27363.00 0.37 0.01 0.93 0.00
37596596.00 566669696.00 27374.00 0.38 -0.00 0.93 0.00
37596568.00 566669696.00 27384.00 0.00 -1.00 -0.00 0.00
37596540.00 566669696.00 27394.00 0.00 -1.00 -0.00 0.00
37596512.00 566669696.00 27410.00 0.43 -0.00 0.90 0.00
37596484.00 566669696.00 27423.00 0.44 -0.04 0.90 0.00
37596452.00 566669696.00 27438.00 0.40 0.05 0.92 0.00
37596424.00 566669696.00 27452.00 0.36 -0.16 0.92 0.00
37596392.00 566669696.00 27462.00 0.37 -0.02 0.93 0.00
37596364.00 566669696.00 27473.00 0.00 -1.00 -0.00 0.00
37596336.00 566669632.00 27481.00 0.37 0.02 0.93 0.01
37596312.00 566669632.00 27498.00 0.00 -1.00 -0.00 0.00
37596280.00 566669632.00 27507.00 0.00 -1.00 -0.00 0.00
37596252.00 566669632.00 27520.00 0.37 -0.02 0.93 0.00
37596224.00 566669632.00 27533.00 0.40 0.02 0.92 0.00
37596192.00 566669632.00 27545.00 0.38 0.03 0.92 0.00
37596164.00 566669632.00 27556.00 0.00 -1.00 -0.00 0.00
37596136.00 566669632.00 27569.00 0.00 -1.00 -0.00 0.00
37596108.00 566669632.00 27581.00 0.00 -1.00 -0.00 0.00
37596080.00 566669632.00 27595.00 0.00 -1.00 -0.00 0.00
37596048.00 566669632.00 27605.00 0.00 -1.00 -0.00 0.00
37596020.00 566669632.00 27616.00 0.00 -1.00 -0.00 0.00
37596384.00 566669632.00 27281.00 0.00 1.00 -0.00 0.00
37596344.00 566669632.00 27480.00 0.39 0.01 0.92 0.00
37596320.00 566669632.00 27492.00 0.37 0.01 0.93 0.01
37596288.00 566669632.00 27506.00 0.00 -1.00 -0.00 0.00
37596256.00 566669632.00 27517.00 0.37 0.01 0.93 0.00
37596232.00 566669632.00 27528.00 0.00 -1.00 -0.00 0.00
37596204.00 566669632.00 27540.00 0.39 0.02 0.92 0.00
37596176.00 566669632.00 27552.00 0.00 -1.00 -0.00 0.00
37596144.00 566669632.00 27565.00 0.00 -1.00 -0.00 0.00
37596116.00 566669632.00 27577.00 0.00 -1.00 -0.00 0.00
37596088.00 566669632.00 27589.00 0.00 -1.00 -0.00 0.00
37596060.00 566669568.00 27601.00 0.35 -0.00 0.94 0.00
37596028.00 566669568.00 27613.00 0.39 -0.00 0.92 0.00
37596548.00 566669760.00 27415.00 0.35 -0.16 0.92 0.04
37596520.00 566669760.00 27424.00 0.39 -0.14 0.91 0.04
37596488.00 566669760.00 27438.00 0.00 -1.00 -0.00 0.00
37596460.00 566669760.00 27447.00 0.00 -1.00 -0.00 0.00
37596432.00 566669760.00 27457.00 0.00 -1.00 -0.00 0.00
37596404.00 566669760.00 27464.00 0.00 -1.00 -0.00 0.00
37596380.00 566669760.00 27476.00 0.00 -1.00 -0.00 0.00
37596352.00 566669760.00 27487.00 0.00 -1.00 -0.00 0.00
37596320.00 566669760.00 27495.00 0.00 -1.00 -0.00 0.00
37596292.00 566669760.00 27505.00 0.00 -1.00 -0.00 0.00
37596264.00 566669760.00 27515.00 0.00 -1.00 -0.00 0.00
37596236.00 566669760.00 27526.00 0.40 -0.14 0.91 0.04
37596208.00 566669760.00 27537.00 0.00 -1.00 -0.00 0.00
37596176.00 566669760.00 27552.00 0.00 -1.00 -0.00 0.00
37596152.00 566669760.00 27558.00 0.00 -1.00 -0.00 0.00
37596120.00 566669696.00 27574.00 0.39 -0.00 0.92 0.00
37596092.00 566669696.00 27585.00 0.64 -0.16 0.76 0.04
37596064.00 566669696.00 27642.00 0.88 -0.11 0.47 0.04
37596032.00 566669696.00 27699.00 0.45 -0.12 0.88 0.07
37596000.00 566669696.00 27699.00 0.07 -0.08 0.99 0.03
37596620.00 566669760.00 27367.00 0.39 -0.14 0.91 0.01
37596592.00 566669760.00 27378.00 0.39 -0.11 0.91 0.03
37596568.00 566669760.00 27387.00 0.43 -0.19 0.88 0.03
37596532.00 566669760.00 27398.00 0.00 -1.00 -0.00 0.00
37596508.00 566669760.00 27412.00 0.35 -0.16 0.92 0.04
37596480.00 566669760.00 27427.00 0.00 -1.00 -0.00 0.00
37596448.00 566669760.00 27436.00 0.00 -1.00 -0.00 0.00
37596416.00 566669760.00 27447.00 0.00 -1.00 -0.00 0.00
37596392.00 566669760.00 27463.00 0.00 -1.00 -0.00 0.00
37596360.00 566669696.00 27475.00 0.00 -1.00 -0.00 0.00
37596332.00 566669696.00 27486.00 0.00 -1.00 -0.00 0.00
37596304.00 566669696.00 27495.00 0.00 -1.00 -0.00 0.00
37596276.00 566669696.00 27508.00 0.00 -1.00 -0.00 0.00
37596248.00 566669696.00 27523.00 0.00 -1.00 -0.00 0.00
37596220.00 566669696.00 27532.00 0.00 -1.00 -0.00 0.00
37596192.00 566669696.00 27543.00 0.00 -1.00 -0.00 0.00
37596164.00 566669696.00 27556.00 0.00 -1.00 -0.00 0.00
37596136.00 566669696.00 27568.00 0.00 -1.00 -0.00 0.00
37596108.00 566669696.00 27578.00 0.39 0.02 0.92 0.00
37596080.00 566669696.00 27593.00 0.69 -0.06 0.72 0.03
37596048.00 566669696.00 27681.00 0.49 0.09 0.87 0.10
37596016.00 566669696.00 27683.00 0.33 -0.32 0.89 0.09
37596040.00 566669632.00 27608.00 0.00 -1.00 -0.00 0.00
37596012.00 566669632.00 27620.00 0.00 -1.00 -0.00 0.00
37596744.00 566669824.00 27335.00 0.38 0.02 0.93 0.00
37596716.00 566669824.00 27345.00 0.37 0.07 0.93 0.00
37596684.00 566669824.00 27358.00 0.38 0.04 0.92 0.00
37596628.00 566669824.00 27380.00 0.37 -0.01 0.93 0.00
37596600.00 566669824.00 27390.00 0.37 0.01 0.93 0.00
37596572.00 566669824.00 27402.00 0.00 -1.00 -0.00 0.00
37596544.00 566669824.00 27414.00 0.00 -1.00 -0.00 0.00
37596516.00 566669824.00 27426.00 0.00 -1.00 -0.00 0.00
37596488.00 566669824.00 27439.00 0.41 -0.00 0.91 0.00
37596460.00 566669824.00 27450.00 0.38 -0.04 0.92 0.00
37596432.00 566669760.00 27464.00 0.00 -1.00 -0.00 0.00
37596404.00 566669760.00 27473.00 0.00 -1.00 -0.00 0.00
37596376.00 566669760.00 27484.00 0.00 -1.00 -0.00 0.00
37596344.00 566669760.00 27499.00 0.00 -1.00 -0.00 0.00
37596316.00 566669760.00 27513.00 0.38 -0.10 0.92 0.03
37596288.00 566669760.00 27523.00 0.00 -1.00 -0.00 0.00
37596256.00 566669760.00 27536.00 0.40 -0.12 0.91 0.04
37596232.00 566669760.00 27545.00 0.00 -1.00 -0.00 0.00
37596204.00 566669760.00 27556.00 0.00 -1.00 -0.00 0.00
37596172.00 566669760.00 27565.00 0.00 -1.00 -0.00 0.00
37596144.00 566669760.00 27579.00 0.00 -1.00 -0.00 0.00
37596112.00 566669760.00 27593.00 0.00 -1.00 -0.00 0.00
37596088.00 566669760.00 27593.00 0.32 -0.02 0.95 0.04
37596056.00 566669760.00 27599.00 0.51 0.32 0.80 0.04
37596024.00 566669760.00 27694.00 0.55 0.31 0.77 0.07
37597004.00 566669888.00 27225.00 0.54 -0.00 0.84 0.01
37596976.00 566669824.00 27238.00 0.34 0.02 0.94 0.00
37596944.00 566669824.00 27249.00 0.37 0.02 0.93 0.00
37596916.00 566669824.00 27260.00 0.39 0.04 0.92 0.00
37596888.00 566669824.00 27274.00 0.39 0.03 0.92 0.00
37596860.00 566669824.00 27286.00 0.38 0.02 0.92 0.00
37596832.00 566669824.00 27295.00 0.38 0.02 0.93 0.00
37596800.00 566669824.00 27309.00 0.39 0.04 0.92 0.00
37596776.00 566669824.00 27320.00 0.39 0.03 0.92 0.00
37596604.00 566669760.00 27389.00 0.50 -0.14 0.86 0.01
37596576.00 566669760.00 27399.00 0.43 -0.14 0.89 0.03
37596996.00 566669952.00 27226.00 0.45 0.05 0.89 0.00
37596968.00 566669888.00 27239.00 0.43 0.03 0.90 0.01
37596936.00 566669888.00 27250.00 0.35 0.01 0.94 0.00
37596908.00 566669888.00 27264.00 0.38 -0.02 0.93 0.00
37596880.00 566669888.00 27273.00 0.00 -1.00 -0.00 0.00
37596852.00 566669888.00 27287.00 0.00 -1.00 -0.00 0.00
37596824.00 566669888.00 27301.00 0.00 -1.00 -0.00 0.00
37596796.00 566669888.00 27308.00 0.38 0.02 0.93 0.00
37596768.00 566669888.00 27320.00 0.36 0.01 0.93 0.00
37596740.00 566669888.00 27333.00 0.37 -0.00 0.93 0.00
37596712.00 566669888.00 27341.00 0.39 0.01 0.92 0.00
37596684.00 566669888.00 27354.00 0.00 -1.00 -0.00 0.00
37596656.00 566669888.00 27369.00 0.00 -1.00 -0.00 0.00
37596628.00 566669888.00 27380.00 0.39 0.03 0.92 0.00
37596596.00 566669888.00 27391.00 0.00 -1.00 -0.00 0.00
37596568.00 566669888.00 27404.00 0.39 0.02 0.92 0.00
37596540.00 566669888.00 27416.00 0.38 0.02 0.93 0.00
37596512.00 566669888.00 27427.00 0.00 -1.00 -0.00 0.00
37596480.00 566669888.00 27439.00 0.00 -1.00 -0.00 0.00
37596452.00 566669888.00 27449.00 0.00 -1.00 -0.00 0.00
37596424.00 566669824.00 27461.00 0.35 0.03 0.94 0.00
37596392.00 566669824.00 27474.00 0.37 0.02 0.93 0.00
37596364.00 566669824.00 27489.00 0.38 0.03 0.92 0.00
37596336.00 566669824.00 27498.00 0.00 -1.00 -0.00 0.00
37596312.00 566669824.00 27512.00 0.40 0.06 0.92 0.00
37596280.00 566669824.00 27525.00 0.00 -1.00 -0.00 0.00
37596252.00 566669824.00 27536.00 0.37 0.02 0.93 0.00
37596224.00 566669824.00 27548.00 0.00 -1.00 -0.00 0.00
37596192.00 566669824.00 27560.00 0.39 0.02 0.92 0.00
37596164.00 566669824.00 27570.00 0.37 -0.04 0.93 0.00
37596136.00 566669824.00 27585.00 0.00 -1.00 -0.00 0.00
37596104.00 566669824.00 27595.00 0.00 -1.00 -0.00 0.00
37596080.00 566669824.00 27595.00 0.00 -1.00 -0.00 0.00
37596048.00 566669824.00 27603.00 0.00 -1.00 -0.00 0.00
37596020.00 566669824.00 27612.00 0.00 -1.00 -0.00 0.00
37597020.00 566669888.00 27205.00 0.54 -0.00 0.84 0.01
37596992.00 566669888.00 27231.00 0.43 -0.03 0.90 0.01
37596960.00 566669888.00 27244.00 0.35 0.05 0.94 0.00
37596932.00 566669888.00 27252.00 0.00 -1.00 -0.00 0.00
37596904.00 566669888.00 27262.00 0.38 0.03 0.93 0.00
37596876.00 566669888.00 27277.00 0.41 0.01 0.91 0.00
37596844.00 566669888.00 27289.00 0.39 -0.04 0.92 0.00
37596816.00 566669888.00 27301.00 0.37 0.01 0.93 0.00
37596788.00 566669888.00 27313.00 0.38 -0.01 0.93 0.00
37596760.00 566669824.00 27326.00 0.38 0.03 0.93 0.00
37596728.00 566669824.00 27338.00 0.37 0.03 0.93 0.00
37596700.00 566669824.00 27349.00 0.37 0.06 0.93 0.00
37596672.00 566669824.00 27361.00 0.37 0.03 0.93 0.00
37596648.00 566669824.00 27372.00 0.37 0.06 0.93 0.00
37596616.00 566669824.00 27383.00 0.36 0.03 0.93 0.00
37596588.00 566669824.00 27395.00 0.36 0.00 0.93 0.00
37596560.00 566669824.00 27404.00 0.00 -1.00 -0.00 0.00
37596532.00 566669824.00 27416.00 0.00 -1.00 -0.00 0.00
37596504.00 566669824.00 27431.00 0.42 0.05 0.91 0.00
37596476.00 566669824.00 27445.00 0.39 -0.01 0.92 0.00
37596444.00 566669824.00 27457.00 0.36 -0.02 0.93 0.00
37596416.00 566669824.00 27470.00 0.37 0.05 0.93 0.00
37596388.00 566669824.00 27479.00 0.00 -1.00 -0.00 0.00
37596360.00 566669824.00 27490.00 0.00 -1.00 -0.00 0.00
37596332.00 566669824.00 27502.00 0.40 -0.01 0.92 0.00
37596304.00 566669824.00 27515.00 0.00 -1.00 -0.00 0.00
37596272.00 566669824.00 27527.00 0.37 0.01 0.93 0.00
37596244.00 566669824.00 27536.00 0.00 -1.00 -0.00 0.00
37596212.00 566669824.00 27552.00 0.37 -0.02 0.93 0.00
37596184.00 566669760.00 27564.00 0.00 -1.00 -0.00 0.00
37596160.00 566669760.00 27570.00 0.00 -1.00 -0.00 0.00
37596128.00 566669760.00 27583.00 0.00 -1.00 -0.00 0.00
37596100.00 566669760.00 27603.00 0.36 0.01 0.93 0.04
37596072.00 566669760.00 27623.00 0.54 0.32 0.78 0.04
37596040.00 566669760.00 27643.00 0.71 0.37 0.60 0.04
37596016.00 566669760.00 27662.00 0.51 0.32 0.80 0.07
37596592.00 566669952.00 27392.00 0.37 0.03 0.93 0.00
37596560.00 566669952.00 27405.00 0.00 -1.00 -0.00 0.00
37596532.00 566669952.00 27416.00 0.40 -0.00 0.92 0.00
37596504.00 566669952.00 27429.00 0.00 -1.00 -0.00 0.00
37596476.00 566669888.00 27443.00 0.00 -1.00 -0.00 0.00
37596448.00 566669888.00 27456.00 0.00 -1.00 -0.00 0.00
37596416.00 566669888.00 27464.00 0.00 -1.00 -0.00 0.00
37596388.00 566669888.00 27477.00 0.38 0.02 0.93 0.00
37596360.00 566669888.00 27488.00 0.00 -1.00 -0.00 0.00
37596328.00 566669888.00 27502.00 0.39 0.02 0.92 0.00
37596304.00 566669888.00 27513.00 0.00 -1.00 -0.00 0.00
37596272.00 566669888.00 27527.00 0.00 -1.00 -0.00 0.00
37596244.00 566669888.00 27538.00 0.00 -1.00 -0.00 0.00
37596216.00 566669888.00 27548.00 0.00 -1.00 -0.00 0.00
37596188.00 566669888.00 27560.00 0.00 -1.00 -0.00 0.00
37596160.00 566669888.00 27569.00 0.00 -1.00 -0.00 0.00
37596136.00 566669888.00 27580.00 0.00 -1.00 -0.00 0.00
37596104.00 566669888.00 27594.00 0.00 -1.00 -0.00 0.00
37596076.00 566669888.00 27594.00 0.00 -1.00 -0.00 0.00
37596048.00 566669888.00 27598.00 0.00 -1.00 -0.00 0.00
37596020.00 566669888.00 27612.00 0.00 -1.00 -0.00 0.00
37597020.00 566669952.00 27206.00 0.48 0.00 0.88 0.01
37596992.00 566669952.00 27230.00 0.43 0.09 0.90 0.00
37596960.00 566669952.00 27239.00 0.00 -1.00 -0.00 0.00
37596936.00 566669952.00 27251.00 0.00 -1.00 -0.00 0.00
37596908.00 566669952.00 27264.00 0.00 -1.00 -0.00 0.00
37596880.00 566669952.00 27274.00 0.00 -1.00 -0.00 0.00
37596852.00 566669952.00 27289.00 0.00 -1.00 -0.00 0.00
37596820.00 566669952.00 27295.00 0.00 -1.00 -0.00 0.00
37596792.00 566669952.00 27310.00 0.00 -1.00 -0.00 0.00
37596764.00 566669952.00 27322.00 0.00 -1.00 -0.00 0.00
37596736.00 566669888.00 27334.00 0.37 0.00 0.93 0.00
37596704.00 566669888.00 27345.00 0.38 0.01 0.93 0.00
37596680.00 566669888.00 27356.00 0.40 0.05 0.92 0.00
37596648.00 566669888.00 27367.00 0.00 -1.00 -0.00 0.00
37596620.00 566669888.00 27380.00 0.39 0.01 0.92 0.00
37596592.00 566669888.00 27393.00 0.40 0.01 0.92 0.00
37596560.00 566669888.00 27404.00 0.39 -0.01 0.92 0.00
37596532.00 566669888.00 27416.00 0.39 -0.02 0.92 0.00
37596500.00 566669888.00 27429.00 0.00 -1.00 -0.00 0.00
37596472.00 566669888.00 27441.00 0.00 -1.00 -0.00 0.00
37596448.00 566669888.00 27454.00 0.00 -1.00 -0.00 0.00
37596420.00 566669888.00 27465.00 0.00 -1.00 -0.00 0.00
37596388.00 566669888.00 27477.00 0.38 0.02 0.93 0.00
37596360.00 566669888.00 27488.00 0.00 -1.00 -0.00 0.00
37596332.00 566669888.00 27503.00 0.39 0.02 0.92 0.00
37596304.00 566669888.00 27510.00 0.39 0.04 0.92 0.00
37596272.00 566669888.00 27526.00 0.00 -1.00 -0.00 0.00
37596244.00 566669888.00 27533.00 0.00 -1.00 -0.00 0.00
37596216.00 566669888.00 27550.00 0.00 -1.00 -0.00 0.00
37596188.00 566669824.00 27563.00 0.00 -1.00 -0.00 0.00
37596160.00 566669824.00 27570.00 0.37 -0.04 0.93 0.00
37596128.00 566669824.00 27585.00 0.00 -1.00 -0.00 0.00
37596100.00 566669824.00 27595.00 0.18 -0.04 0.98 0.00
37596072.00 566669824.00 27594.00 0.00 -1.00 -0.00 0.00
37596048.00 566669824.00 27602.00 0.00 -1.00 -0.00 0.00
37596020.00 566669824.00 27614.00 0.00 -1.00 -0.00 0.00
37596016.00 566669952.00 27613.00 0.00 -1.00 -0.00 0.00
37596496.00 566669952.00 27431.00 0.41 0.04 0.91 0.00
37596464.00 566669952.00 27447.00 0.00 -1.00 -0.00 0.00
37596436.00 566669952.00 27458.00 0.38 0.02 0.93 0.00
37596408.00 566669952.00 27470.00 0.00 -1.00 -0.00 0.00
37596380.00 566669952.00 27482.00 0.00 -1.00 -0.00 0.00
37596352.00 566669952.00 27495.00 0.00 -1.00 -0.00 0.00
37596324.00 566669952.00 27504.00 0.00 -1.00 -0.00 0.00
37596296.00 566669952.00 27514.00 0.00 -1.00 -0.00 0.00
37596264.00 566669952.00 27526.00 0.00 -1.00 -0.00 0.00
37596240.00 566669888.00 27539.00 0.00 -1.00 -0.00 0.00
37596212.00 566669888.00 27553.00 0.00 -1.00 -0.00 0.00
37596180.00 566669888.00 27563.00 0.00 -1.00 -0.00 0.00
37596156.00 566669888.00 27575.00 0.36 -0.01 0.93 0.00
37596124.00 566669888.00 27586.00 0.00 -1.00 -0.00 0.00
37596096.00 566669888.00 27599.00 0.19 -0.10 0.98 0.01
37596072.00 566669888.00 27593.00 0.00 -1.00 -0.00 0.00
37596040.00 566669888.00 27604.00 0.00 -1.00 -0.00 0.00
37596012.00 566669888.00 27615.00 0.11 -0.13 0.98 0.06
37596928.00 566670016.00 27252.00 0.00 -1.00 -0.00 0.00
37596900.00 566670016.00 27266.00 0.39 -0.01 0.92 0.00
37596872.00 566670016.00 27276.00 0.39 -0.00 0.92 0.00
37596840.00 566670016.00 27289.00 0.37 0.00 0.93 0.00
37596812.00 566669952.00 27304.00 0.00 -1.00 -0.00 0.00
37596780.00 566669952.00 27315.00 0.00 -1.00 -0.00 0.00
37596752.00 566669952.00 27326.00 0.00 -1.00 -0.00 0.00
37596728.00 566669952.00 27338.00 0.00 -1.00 -0.00 0.00
37596696.00 566669952.00 27348.00 0.00 -1.00 -0.00 0.00
37596668.00 566669952.00 27360.00 0.37 0.03 0.93 0.00
37596640.00 566669952.00 27372.00 0.38 0.01 0.92 0.00
37596608.00 566669952.00 27384.00 0.37 -0.00 0.93 0.00
37596580.00 566669952.00 27395.00 0.37 0.01 0.93 0.00
37596552.00 566669952.00 27406.00 0.00 -1.00 -0.00 0.00
37596520.00 566669952.00 27422.00 0.40 0.02 0.92 0.00
37596992.00 566669952.00 27226.00 0.44 -0.02 0.90 0.00
37596964.00 566669952.00 27238.00 0.00 -1.00 -0.00 0.00
37596936.00 566669952.00 27251.00 0.00 -1.00 -0.00 0.00
37596908.00 566669952.00 27261.00 0.00 -1.00 -0.00 0.00
37596880.00 566669952.00 27274.00 0.00 -1.00 -0.00 0.00
37596852.00 566669952.00 27284.00 0.00 -1.00 -0.00 0.00
37596820.00 566669952.00 27298.00 0.00 -1.00 -0.00 0.00
37596792.00 566669952.00 27312.00 0.00 -1.00 -0.00 0.00
37596768.00 566669952.00 27320.00 0.00 -1.00 -0.00 0.00
37596736.00 566669952.00 27333.00 0.00 -1.00 -0.00 0.00
37596708.00 566669952.00 27344.00 0.37 0.03 0.93 0.00
37596676.00 566669952.00 27358.00 0.37 0.00 0.93 0.00
37596648.00 566669952.00 27368.00 0.38 -0.02 0.92 0.00
37596616.00 566669952.00 27382.00 0.38 0.04 0.92 0.00
37596064.00 566669952.00 27595.00 0.00 -1.00 -0.00 0.00
37596040.00 566669952.00 27600.00 0.23 0.11 0.97 0.01
37596008.00 566669952.00 27613.00 0.00 -1.00 -0.00 0.00
37596408.00 566670016.00 27467.00 0.39 0.03 0.92 0.00
37596380.00 566670016.00 27479.00 0.38 0.04 0.92 0.00
37596356.00 566670016.00 27489.00 0.39 0.01 0.92 0.00
37596328.00 566670016.00 27501.00 0.38 0.02 0.93 0.00
37596296.00 566670016.00 27513.00 0.37 0.00 0.93 0.00
37596268.00 566669952.00 27527.00 0.00 -1.00 -0.00 0.00
37596236.00 566669952.00 27536.00 0.00 -1.00 -0.00 0.00
37596208.00 566669952.00 27551.00 0.00 -1.00 -0.00 0.00
37596180.00 566669952.00 27562.00 0.00 -1.00 -0.00 0.00
37596152.00 566669952.00 27575.00 0.00 -1.00 -0.00 0.00
37596124.00 566669952.00 27585.00 0.00 -1.00 -0.00 0.00
37596096.00 566669952.00 27598.00 0.00 -1.00 -0.00 0.00
37596616.00 566670016.00 27379.00 0.00 -1.00 -0.00 0.00
37596588.00 566670016.00 27391.00 0.38 0.05 0.92 0.00
37596560.00 566670016.00 27403.00 0.00 -1.00 -0.00 0.00
37596528.00 566670016.00 27418.00 0.00 -1.00 -0.00 0.00
37596500.00 566670016.00 27427.00 0.00 -1.00 -0.00 0.00
37596476.00 566669952.00 27440.00 0.40 0.03 0.91 0.00
37596448.00 566669952.00 27454.00 0.00 -1.00 -0.00 0.00
37596416.00 566669952.00 27465.00 0.36 -0.03 0.93 0.00
37596392.00 566669952.00 27473.00 0.38 -0.01 0.92 0.00
37596360.00 566669952.00 27487.00 0.00 -1.00 -0.00 0.00
37596332.00 566669952.00 27497.00 0.37 0.01 0.93 0.00
37596304.00 566669952.00 27510.00 0.00 -1.00 -0.00 0.00
37596276.00 566669952.00 27523.00 0.00 -1.00 -0.00 0.00
37596248.00 566669952.00 27533.00 0.00 -1.00 -0.00 0.00
37596220.00 566669952.00 27544.00 0.00 -1.00 -0.00 0.00
37596192.00 566669952.00 27559.00 0.00 -1.00 -0.00 0.00
37596160.00 566669952.00 27570.00 0.37 -0.03 0.93 0.00
37596136.00 566669952.00 27582.00 0.00 -1.00 -0.00 0.00
37596104.00 566669952.00 27593.00 0.00 -1.00 -0.00 0.00
37596076.00 566669952.00 27597.00 0.00 -1.00 -0.00 0.00
37596048.00 566669952.00 27601.00 0.00 -1.00 -0.00 0.00
37596084.00 566670016.00 27602.00 0.18 0.03 0.98 0.02
37596056.00 566670016.00 27594.00 0.00 -1.00 -0.00 0.00
37596028.00 566670016.00 27609.00 0.00 -1.00 -0.00 0.00
37595984.00 566670016.00 27625.00 0.00 -1.00 -0.00 0.00
37595956.00 566670016.00 27635.00 0.02 0.51 0.86 0.16
37595928.00 566670016.00 27649.00 0.68 0.07 0.73 0.11
37595904.00 566670016.00 27569.00 -0.38 0.02 0.92 0.01
37595876.00 566670016.00 27555.00 -0.25 -0.02 0.97 0.01
37595848.00 566670016.00 27555.00 -0.20 0.02 0.98 0.01
37595824.00 566670016.00 27491.00 -0.49 0.82 0.30 0.09
37595796.00 566670016.00 27428.00 -0.89 -0.12 0.43 0.05
37595772.00 566670016.00 27364.00 -0.33 -0.02 0.95 0.00
37595980.00 566670080.00 27625.00 0.00 -1.00 -0.00 0.00
37595952.00 566670080.00 27639.00 0.15 0.15 0.98 0.11
37595920.00 566670080.00 27645.00 0.10 -0.01 0.99 0.10
37595896.00 566670080.00 27566.00 -0.42 -0.14 0.90 0.04
37595868.00 566670080.00 27557.00 -0.12 -0.03 0.99 0.01
37595840.00 566670080.00 27553.00 -0.16 -0.02 0.99 0.01
37595812.00 566670080.00 27552.00 -0.16 -0.03 0.99 0.00
37595784.00 566670080.00 27543.00 -0.18 -0.00 0.98 0.00
37595768.00 566670080.00 27361.00 -0.32 -0.00 0.95 0.00
37595736.00 566670080.00 27352.00 0.00 1.00 -0.00 0.00
37595712.00 566670080.00 27340.00 0.00 1.00 -0.00 0.00
37595680.00 566670080.00 27330.00 0.00 1.00 -0.00 0.00
37595656.00 566670080.00 27319.00 0.00 1.00 -0.00 0.00
37595628.00 566670080.00 27308.00 -0.35 0.01 0.94 0.00
37595988.00 566670016.00 27622.00 0.26 0.04 0.96 0.05
37595960.00 566670016.00 27605.00 0.00 1.00 -0.00 0.00
37595932.00 566670016.00 27588.00 0.00 1.00 -0.00 0.00
37595904.00 566670016.00 27572.00 -0.38 0.02 0.92 0.01
37595880.00 566670016.00 27555.00 -0.33 -0.08 0.94 0.01
37595852.00 566670016.00 27552.00 -0.20 0.02 0.98 0.01
37595824.00 566670016.00 27550.00 -0.30 -0.05 0.95 0.16
37595792.00 566670016.00 27547.00 -0.19 -0.01 0.98 0.13
37595772.00 566670016.00 27363.00 -0.33 -0.02 0.95 0.00
37595744.00 566670016.00 27356.00 -0.33 -0.04 0.94 0.00
37595716.00 566670016.00 27343.00 0.00 1.00 -0.00 0.00
37595688.00 566670016.00 27333.00 0.00 1.00 -0.00 0.00
37595664.00 566670016.00 27320.00 -0.34 -0.04 0.94 0.00
37595636.00 566670016.00 27314.00 -0.36 -0.01 0.93 0.00
37595992.00 566670144.00 27606.00 0.14 -0.12 0.98 0.05
37595968.00 566670144.00 27605.00 0.00 -1.00 -0.00 0.00
37595936.00 566670144.00 27604.00 -0.00 -0.40 0.92 0.14
37595908.00 566670144.00 27602.00 -0.68 0.05 0.73 0.10
37595880.00 566670144.00 27559.00 -0.54 0.34 0.77 0.04
37595856.00 566670144.00 27558.00 -0.14 -0.03 0.99 0.00
37595828.00 566670144.00 27551.00 -0.14 -0.02 0.99 0.00
37595800.00 566670144.00 27551.00 -0.13 -0.03 0.99 0.00
37595776.00 566670144.00 27366.00 -0.31 -0.04 0.95 0.00
37595752.00 566670144.00 27355.00 -0.31 -0.06 0.95 0.00
37595728.00 566670144.00 27347.00 0.00 1.00 -0.00 0.00
37595696.00 566670144.00 27337.00 0.00 1.00 -0.00 0.00
37595672.00 566670080.00 27328.00 0.00 1.00 -0.00 0.00
37595644.00 566670080.00 27318.00 -0.38 -0.04 0.92 0.00
37595972.00 566670080.00 27633.00 0.00 -1.00 -0.00 0.00
37595944.00 566670080.00 27644.00 0.12 -0.12 0.99 0.10
37595920.00 566670080.00 27603.00 -0.70 -0.39 0.60 0.10
37595896.00 566670080.00 27562.00 -0.42 -0.14 0.90 0.04
37595864.00 566670080.00 27557.00 -0.12 0.01 0.99 0.00
37595836.00 566670080.00 27561.00 -0.16 0.03 0.99 0.00
37595788.00 566670080.00 27364.00 -0.25 0.01 0.97 0.00
37595760.00 566670080.00 27360.00 -0.29 -0.04 0.95 0.00
37595732.00 566670080.00 27351.00 0.00 1.00 -0.00 0.00
37595704.00 566670080.00 27341.00 0.00 1.00 -0.00 0.00
37595676.00 566670080.00 27329.00 0.00 1.00 -0.00 0.00
37595652.00 566670080.00 27322.00 0.00 1.00 -0.00 0.00
37595708.00 566670208.00 27339.00 0.00 1.00 -0.00 0.00
37595680.00 566670144.00 27331.00 0.00 1.00 -0.00 0.00
37595652.00 566670144.00 27322.00 -0.35 -0.02 0.94 0.00
37595624.00 566670144.00 27310.00 -0.35 -0.04 0.93 0.00
37595992.00 566670144.00 27620.00 0.29 0.21 0.93 0.10
37595960.00 566670144.00 27634.00 0.00 -1.00 -0.00 0.00
37595936.00 566670144.00 27650.00 -0.26 0.01 0.96 0.17
37595908.00 566670144.00 27606.00 -0.68 0.05 0.73 0.10
37595880.00 566670144.00 27560.00 -0.54 0.34 0.77 0.04
37595856.00 566670144.00 27557.00 -0.14 -0.00 0.99 0.00
37595828.00 566670144.00 27548.00 -0.14 -0.02 0.99 0.00
37595800.00 566670144.00 27549.00 -0.13 -0.03 0.99 0.00
37595780.00 566670144.00 27361.00 -0.31 -0.04 0.95 0.00
37595752.00 566670144.00 27361.00 -0.31 -0.05 0.95 0.00
37595728.00 566670144.00 27348.00 0.00 1.00 -0.00 0.00
37595696.00 566670144.00 27338.00 0.00 1.00 -0.00 0.00
37595672.00 566670144.00 27329.00 0.00 1.00 -0.00 0.00
37595644.00 566670144.00 27319.00 -0.34 -0.01 0.94 0.00
37595644.00 566670208.00 27320.00 -0.36 -0.01 0.93 0.00
37595616.00 566670208.00 27311.00 -0.36 -0.01 0.93 0.00
37596000.00 566670208.00 27615.00 0.00 -1.00 -0.00 0.00
37595968.00 566670208.00 27629.00 0.34 0.02 0.94 0.00
37595972.00 566670208.00 27628.00 0.00 -1.00 -0.00 0.00
37595944.00 566670208.00 27640.00 -0.03 -0.62 0.79 0.15
37595916.00 566670208.00 27645.00 -0.47 -0.41 0.78 0.12
37595892.00 566670208.00 27560.00 -0.46 0.13 0.88 0.08
37595864.00 566670208.00 27559.00 -0.16 0.04 0.99 0.09
37595840.00 566670208.00 27555.00 0.07 0.02 1.00 0.05
37595808.00 566670208.00 27554.00 -0.12 -0.04 0.99 0.00
37595788.00 566670208.00 27457.00 -0.79 0.60 0.16 0.10
37595760.00 566670208.00 27359.00 0.00 1.00 -0.00 0.00
37595732.00 566670208.00 27351.00 0.00 1.00 -0.00 0.00
37595996.00 566670272.00 27618.00 0.36 -0.02 0.93 0.00
37595968.00 566670272.00 27628.00 0.36 -0.01 0.93 0.00
37595988.00 566670272.00 27620.00 0.38 -0.01 0.93 0.00
37595964.00 566670272.00 27633.00 0.36 -0.01 0.93 0.00
37595936.00 566670272.00 27647.00 -0.11 0.28 0.95 0.16
37595908.00 566670272.00 27589.00 -0.80 -0.26 0.54 0.09
37595884.00 566670272.00 27531.00 -0.88 0.34 0.33 0.06
37595856.00 566670272.00 27450.00 -0.89 -0.14 0.43 0.01
37595832.00 566670272.00 27395.00 -0.67 -0.19 0.72 0.03
37595804.00 566670272.00 27380.00 -0.41 -0.08 0.91 0.00
37595776.00 566670272.00 27369.00 -0.38 -0.06 0.92 0.00
37595748.00 566670208.00 27359.00 0.00 1.00 -0.00 0.00
37595724.00 566670208.00 27349.00 0.00 1.00 -0.00 0.00
37595692.00 566670208.00 27342.00 0.00 1.00 -0.00 0.00
37595664.00 566670208.00 27329.00 0.00 1.00 -0.00 0.00
37595640.00 566670208.00 27319.00 -0.36 -0.01 0.93 0.00
37595940.00 566670208.00 27642.00 -0.77 -0.05 0.64 0.15
37595916.00 566670208.00 27585.00 -0.88 0.06 0.48 0.05
37595888.00 566670208.00 27527.00 -0.93 0.11 0.35 0.12
37595864.00 566670208.00 27470.00 -0.80 0.54 0.25 0.10
37595840.00 566670208.00 27401.00 -0.75 0.37 0.54 0.13
37595816.00 566670208.00 27382.00 -0.44 -0.02 0.90 0.00
37595784.00 566670208.00 27370.00 0.00 1.00 -0.00 0.00
37595756.00 566670208.00 27361.00 0.00 1.00 -0.00 0.00
37595728.00 566670208.00 27352.00 0.00 1.00 -0.00 0.00
37595700.00 566670208.00 27341.00 0.00 1.00 -0.00 0.00
37595672.00 566670208.00 27330.00 0.00 1.00 -0.00 0.00
37595936.00 566670272.00 27644.00 -0.11 0.28 0.95 0.16
37595912.00 566670272.00 27645.00 -0.41 0.24 0.88 0.14
37595888.00 566670272.00 27560.00 -0.91 0.16 0.38 0.11
37595864.00 566670272.00 27474.00 -0.94 -0.07 0.33 0.00
37595836.00 566670272.00 27401.00 -0.67 -0.19 0.72 0.03
37595808.00 566670272.00 27384.00 -0.41 -0.08 0.91 0.00
37595784.00 566670272.00 27375.00 -0.40 -0.06 0.91 0.00
37595752.00 566670272.00 27362.00 -0.35 -0.02 0.94 0.00
37595728.00 566670272.00 27351.00 -0.35 -0.03 0.94 0.00
37595696.00 566670272.00 27342.00 -0.35 -0.02 0.94 0.00
37595672.00 566670272.00 27331.00 -0.35 0.01 0.94 0.00
37595644.00 566670272.00 27320.00 -0.36 -0.00 0.93 0.00
37595616.00 566670272.00 27310.00 -0.36 -0.00 0.93 0.00
37597016.00 566670016.00 27213.00 0.49 0.01 0.87 0.00
37596984.00 566670016.00 27230.00 0.39 0.02 0.92 0.00
37596960.00 566670016.00 27242.00 0.39 -0.01 0.92 0.00
37597016.00 566670080.00 27211.00 0.43 0.02 0.90 0.00
37596984.00 566670080.00 27231.00 0.42 0.03 0.91 0.00
37596952.00 566670080.00 27242.00 0.39 0.03 0.92 0.00
37596928.00 566670080.00 27253.00 0.38 -0.01 0.92 0.00
37596896.00 566670080.00 27267.00 0.00 -1.00 -0.00 0.00
37596868.00 566670080.00 27278.00 0.37 0.01 0.93 0.00
37596840.00 566670080.00 27289.00 0.34 0.02 0.94 0.00
37596808.00 566670016.00 27303.00 0.39 0.05 0.92 0.00
37596780.00 566670016.00 27312.00 0.38 0.01 0.92 0.00
37596752.00 566670016.00 27326.00 0.00 -1.00 -0.00 0.00
37596720.00 566670016.00 27338.00 0.37 0.06 0.93 0.00
37596696.00 566670016.00 27349.00 0.37 0.00 0.93 0.00
37596664.00 566670016.00 27360.00 0.00 -1.00 -0.00 0.00
37596636.00 566670016.00 27373.00 0.37 -0.00 0.93 0.00
37596612.00 566670016.00 27383.00 0.38 0.03 0.92 0.00
37596584.00 566670016.00 27394.00 0.00 -1.00 -0.00 0.00
37596552.00 566670016.00 27407.00 0.00 -1.00 -0.00 0.00
37596528.00 566670016.00 27417.00 0.00 -1.00 -0.00 0.00
37596496.00 566670016.00 27429.00 0.00 -1.00 -0.00 0.00
37596468.00 566670016.00 27443.00 0.40 0.03 0.92 0.00
37596440.00 566670016.00 27454.00 0.39 0.02 0.92 0.00
37596992.00 566670016.00 27226.00 0.45 0.02 0.89 0.00
37596964.00 566670016.00 27239.00 0.40 -0.00 0.92 0.00
37596932.00 566670016.00 27251.00 0.38 0.01 0.93 0.00
37596904.00 566670016.00 27262.00 0.38 -0.01 0.93 0.00
37596876.00 566670016.00 27275.00 0.00 -1.00 -0.00 0.00
37596848.00 566670016.00 27286.00 0.00 -1.00 -0.00 0.00
37596820.00 566670016.00 27298.00 0.37 0.01 0.93 0.00
37596792.00 566670016.00 27309.00 0.39 0.01 0.92 0.00
37596760.00 566670016.00 27324.00 0.37 0.02 0.93 0.00
37596732.00 566670016.00 27333.00 0.38 0.03 0.92 0.00
37596704.00 566670016.00 27344.00 0.37 0.01 0.93 0.00
37596672.00 566670016.00 27359.00 0.37 0.03 0.93 0.00
37596644.00 566670016.00 27368.00 0.37 0.04 0.93 0.00
37596640.00 566670080.00 27368.00 0.37 0.01 0.93 0.00
37596616.00 566670080.00 27380.00 0.37 0.01 0.93 0.00
37596584.00 566670080.00 27390.00 0.38 0.02 0.93 0.00
37596556.00 566670080.00 27403.00 0.38 0.01 0.92 0.00
37596524.00 566670080.00 27419.00 0.38 0.03 0.92 0.00
37596496.00 566670080.00 27428.00 0.39 -0.01 0.92 0.00
37596468.00 566670080.00 27440.00 0.39 0.02 0.92 0.00
37596436.00 566670080.00 27454.00 0.37 0.02 0.93 0.00
37596408.00 566670080.00 27465.00 0.36 0.01 0.93 0.00
37596384.00 566670080.00 27475.00 0.00 -1.00 -0.00 0.00
37596352.00 566670080.00 27487.00 0.00 -1.00 -0.00 0.00
37596324.00 566670080.00 27500.00 0.00 -1.00 -0.00 0.00
37596296.00 566670080.00 27513.00 0.00 -1.00 -0.00 0.00
37596268.00 566670016.00 27525.00 0.35 0.03 0.94 0.00
37596240.00 566670016.00 27536.00 0.38 -0.01 0.93 0.00
37596208.00 566670016.00 27551.00 0.40 0.04 0.92 0.00
37596176.00 566670016.00 27560.00 0.39 0.00 0.92 0.00
37596152.00 566670016.00 27574.00 0.00 -1.00 -0.00 0.00
37596120.00 566670016.00 27584.00 0.00 -1.00 -0.00 0.00
37596096.00 566670016.00 27595.00 0.00 -1.00 -0.00 0.00
37596068.00 566670016.00 27591.00 0.00 -1.00 -0.00 0.00
37596040.00 566670016.00 27598.00 0.00 -1.00 -0.00 0.00
37596012.00 566670016.00 27612.00 0.00 -1.00 -0.00 0.00
37596972.00 566670080.00 27234.00 0.41 0.03 0.91 0.00
37596944.00 566670080.00 27245.00 0.38 -0.00 0.92 0.00
37596916.00 566670080.00 27258.00 0.00 -1.00 -0.00 0.00
37596884.00 566670080.00 27270.00 0.37 0.01 0.93 0.00
37596860.00 566670080.00 27281.00 0.35 0.02 0.94 0.00
37596828.00 566670080.00 27292.00 0.37 0.02 0.93 0.00
37596800.00 566670080.00 27301.00 0.37 0.03 0.93 0.00
37596772.00 566670080.00 27317.00 0.38 0.04 0.92 0.00
37596744.00 566670080.00 27326.00 0.38 0.04 0.92 0.00
37596716.00 566670080.00 27336.00 0.39 0.02 0.92 0.00
37596688.00 566670080.00 27350.00 0.40 0.03 0.92 0.00
37596660.00 566670080.00 27364.00 0.40 0.02 0.92 0.00
37596632.00 566670080.00 27374.00 0.37 0.02 0.93 0.00
37596604.00 566670080.00 27386.00 0.00 -1.00 -0.00 0.00
37596576.00 566670080.00 27397.00 0.38 0.02 0.93 0.00
37596544.00 566670080.00 27409.00 0.38 0.02 0.93 0.00
37596516.00 566670016.00 27422.00 0.00 -1.00 -0.00 0.00
37596488.00 566670016.00 27434.00 0.00 -1.00 -0.00 0.00
37596460.00 566670016.00 27445.00 0.00 -1.00 -0.00 0.00
37596432.00 566670016.00 27458.00 0.38 0.03 0.92 0.00
